464.000000 496.000000 40.000000
463.403715 494.807430 41.490712
462.807430 493.614861 42.981424
462.211146 492.422291 44.472136
461.614861 491.229722 45.962848
461.018576 490.037152 47.453560
460.422291 488.844582 48.944272
459.826006 487.652013 50.434984
459.229722 486.459443 51.925696
458.633437 485.266874 53.416408
458.037152 484.074304 54.907120
457.440867 482.881735 56.397832
456.844582 481.689165 57.888544
456.248298 480.496595 59.379256
455.652013 479.304026 60.869968
455.055728 478.111456 62.360680
454.459443 476.918887 63.851392
453.863159 475.726317 65.342104
453.266874 474.533747 66.832816
452.670589 473.341178 68.323528
452.074304 472.148608 69.814240
451.478019 470.956039 71.304952
450.881735 469.763469 72.795664
450.285450 468.570899 74.286376
449.689165 467.378330 75.777088
449.092880 466.185760 77.267800
448.496595 464.993191 78.758512
447.900311 463.800621 80.249224
447.304026 462.608052 81.739936
446.707741 461.415482 83.230648
446.111456 460.222912 84.721360
445.515171 459.030343 86.212072
444.918887 457.837773 87.702784
444.322602 456.645204 89.193496
443.726317 455.452634 90.684207
443.130032 454.260064 92.174919
442.533747 453.067495 93.665631
441.937463 451.874925 95.156343
441.341178 450.682356 96.647055
440.744893 449.489786 98.137767
440.148608 448.297216 99.628479
439.552323 447.104647 101.119191
438.956039 445.912077 102.609903
438.359754 444.719508 104.100615
437.763469 443.526938 105.591327
437.167184 442.334369 107.082039
436.570899 441.141799 108.572751
435.974615 439.949229 110.063463
435.378330 438.756660 111.554175
434.782045 437.564090 113.044887
434.185760 436.371521 114.535599
433.589476 435.178951 116.026311
432.993191 433.986381 117.517023
432.000000 432.000000 120.000000
431.172394 430.179267 120.000000
430.344788 428.358534 120.000000
429.517182 426.537801 120.000000
428.689576 424.717068 120.000000
427.861971 422.896335 120.000000
427.034365 421.075602 120.000000
426.206759 419.254869 120.000000
425.379153 417.434136 120.000000
424.551547 415.613403 120.000000
423.723941 413.792670 120.000000
422.896335 411.971937 120.000000
422.068729 410.151205 120.000000
421.241123 408.330472 120.000000
420.413518 406.509739 120.000000
419.585912 404.689006 120.000000
418.758306 402.868273 120.000000
417.930700 401.047540 120.000000
417.103094 399.226807 120.000000
416.275488 397.406074 120.000000
415.447882 395.585341 120.000000
414.620276 393.764608 120.000000
413.792670 391.943875 120.000000
412.965065 390.123142 120.000000
412.137459 388.302409 120.000000
411.309853 386.481676 120.000000
410.482247 384.660943 120.000000
409.654641 382.840210 120.000000
408.827035 381.019477 120.000000
407.999429 379.198744 120.000000
407.171823 377.378011 120.000000
406.344217 375.557278 120.000000
405.516612 373.736545 120.000000
404.689006 371.915812 120.000000
403.861400 370.095080 120.000000
403.033794 368.274347 120.000000
402.206188 366.453614 120.000000
401.378582 364.632881 120.000000
400.550976 362.812148 120.000000
399.723370 360.991415 120.000000
398.895764 359.170682 120.000000
398.068159 357.349949 120.000000
397.240553 355.529216 120.000000
396.412947 353.708483 120.000000
395.585341 351.887750 120.000000
394.757735 350.067017 120.000000
393.930129 348.246284 120.000000
393.102523 346.425551 120.000000
392.274917 344.604818 120.000000
391.447311 342.784085 120.000000
390.619706 340.963352 120.000000
389.792100 339.142619 120.000000
388.964494 337.321886 120.000000
388.136888 335.501153 120.000000
387.309282 333.680420 120.000000
386.481676 331.859687 120.000000
385.654070 330.038955 120.000000
384.826464 328.218222 120.000000
383.998858 326.397489 120.000000
383.171253 324.576756 120.000000
382.343647 322.756023 120.000000
381.516041 320.935290 120.000000
380.688435 319.114557 120.000000
379.860829 317.293824 120.000000
379.033223 315.473091 120.000000
378.205617 313.652358 120.000000
377.378011 311.831625 120.000000
376.550405 310.010892 120.000000
375.722800 308.190159 120.000000
374.895194 306.369426 120.000000
374.067588 304.548693 120.000000
373.239982 302.727960 120.000000
372.412376 300.907227 120.000000
371.584770 299.086494 120.000000
370.757164 297.265761 120.000000
369.929558 295.445028 120.000000
369.101952 293.624295 120.000000
368.274347 291.803562 120.000000
367.446741 289.982830 120.000000
366.619135 288.162097 120.000000
365.791529 286.341364 120.000000
364.963923 284.520631 120.000000
364.136317 282.699898 120.000000
363.308711 280.879165 120.000000
362.481105 279.058432 120.000000
361.653499 277.237699 120.000000
360.825894 275.416966 120.000000
359.998288 273.596233 120.000000
359.170682 271.775500 120.000000
358.343076 269.954767 120.000000
357.515470 268.134034 120.000000
356.687864 266.313301 120.000000
355.860258 264.492568 120.000000
355.032652 262.671835 120.000000
354.205046 260.851102 120.000000
353.377441 259.030369 120.000000
352.000000 256.000000 120.000000
350.815302 254.459893 119.526121
349.630604 252.919786 119.052242
348.445907 251.379679 118.578363
347.261209 249.839572 118.104484
346.076511 248.299465 117.630604
344.891813 246.759358 117.156725
343.707116 245.219250 116.682846
342.522418 243.679143 116.208967
341.337720 242.139036 115.735088
340.153022 240.598929 115.261209
338.968325 239.058822 114.787330
337.783627 237.518715 114.313451
336.598929 235.978608 113.839572
335.414231 234.438501 113.365693
334.229534 232.898394 112.891813
333.044836 231.358287 112.417934
331.860138 229.818180 111.944055
330.675440 228.278073 111.470176
329.490743 226.737965 110.996297
328.306045 225.197858 110.522418
327.121347 223.657751 110.048539
325.936649 222.117644 109.574660
324.751952 220.577537 109.100781
323.567254 219.037430 108.626902
322.382556 217.497323 108.153022
321.197858 215.957216 107.679143
320.013161 214.417109 107.205264
318.828463 212.877002 106.731385
317.643765 211.336895 106.257506
316.459067 209.796788 105.783627
315.274370 208.256680 105.309748
314.089672 206.716573 104.835869
312.904974 205.176466 104.361990
311.720276 203.636359 103.888111
310.535579 202.096252 103.414231
309.350881 200.556145 102.940352
308.166183 199.016038 102.466473
306.981485 197.475931 101.992594
305.796788 195.935824 101.518715
304.612090 194.395717 101.044836
303.427392 192.855610 100.570957
302.242694 191.315503 100.097078
301.057997 189.775395 99.623199
299.873299 188.235288 99.149320
298.688601 186.695181 98.675440
297.503903 185.155074 98.201561
296.319205 183.614967 97.727682
295.134508 182.074860 97.253803
293.949810 180.534753 96.779924
292.765112 178.994646 96.306045
291.580414 177.454539 95.832166
290.395717 175.914432 95.358287
289.211019 174.374325 94.884408
288.026321 172.834218 94.410528
286.841623 171.294110 93.936649
285.656926 169.754003 93.462770
284.472228 168.213896 92.988891
283.287530 166.673789 92.515012
282.102832 165.133682 92.041133
280.918135 163.593575 91.567254
279.733437 162.053468 91.093375
278.548739 160.513361 90.619496
277.364041 158.973254 90.145617
276.179344 157.433147 89.671737
274.994646 155.893040 89.197858
273.809948 154.352933 88.723979
272.000000 152.000000 88.000000
271.642229 152.000000 86.032260
271.284458 152.000000 84.064520
270.926687 152.000000 82.096781
270.568916 152.000000 80.129041
270.211146 152.000000 78.161301
269.853375 152.000000 76.193561
269.495604 152.000000 74.225821
269.137833 152.000000 72.258081
268.780062 152.000000 70.290342
268.422291 152.000000 68.322602
268.064520 152.000000 66.354862
267.706749 152.000000 64.387122
267.348979 152.000000 62.419382
266.991208 152.000000 60.451643
266.633437 152.000000 58.483903
266.275666 152.000000 56.516163
265.917895 152.000000 54.548423
265.560124 152.000000 52.580683
265.202353 152.000000 50.612943
264.844582 152.000000 48.645204
264.486812 152.000000 46.677464
264.129041 152.000000 44.709724
263.771270 152.000000 42.741984
263.413499 152.000000 40.774244
263.055728 152.000000 38.806504
262.697957 152.000000 36.838765
262.340186 152.000000 34.871025
261.982415 152.000000 32.903285
261.624645 152.000000 30.935545
261.266874 152.000000 28.967805
260.909103 152.000000 27.000066
260.551332 152.000000 25.032326
260.193561 152.000000 23.064586
259.835790 152.000000 21.096846
259.478019 152.000000 19.129106
259.120248 152.000000 17.161366
258.762478 152.000000 15.193627
258.404707 152.000000 13.225887
258.046936 152.000000 11.258147
257.689165 152.000000 9.290407
257.331394 152.000000 7.322667
256.973623 152.000000 5.354928
256.615852 152.000000 3.387188
256.000000 152.000000 0.000000
256.812277 152.000000 -1.827623
257.624554 152.000000 -3.655246
258.436831 152.000000 -5.482869
259.249108 152.000000 -7.310492
260.061385 152.000000 -9.138115
260.873662 152.000000 -10.965739
261.685939 152.000000 -12.793362
262.498215 152.000000 -14.620985
263.310492 152.000000 -16.448608
264.122769 152.000000 -18.276231
264.935046 152.000000 -20.103854
265.747323 152.000000 -21.931477
266.559600 152.000000 -23.759100
267.371877 152.000000 -25.586723
268.184154 152.000000 -27.414346
268.996431 152.000000 -29.241970
269.808708 152.000000 -31.069593
270.620985 152.000000 -32.897216
272.000000 152.000000 -36.000000
273.638464 150.853075 -36.000000
275.276928 149.706151 -36.000000
276.915392 148.559226 -36.000000
278.553855 147.412301 -36.000000
280.192319 146.265377 -36.000000
281.830783 145.118452 -36.000000
283.469247 143.971527 -36.000000
285.107711 142.824602 -36.000000
286.746175 141.677678 -36.000000
288.384638 140.530753 -36.000000
290.023102 139.383828 -36.000000
291.661566 138.236904 -36.000000
293.300030 137.089979 -36.000000
294.938494 135.943054 -36.000000
296.576958 134.796130 -36.000000
298.215421 133.649205 -36.000000
299.853885 132.502280 -36.000000
301.492349 131.355356 -36.000000
303.130813 130.208431 -36.000000
304.769277 129.061506 -36.000000
306.407741 127.914582 -36.000000
308.046205 126.767657 -36.000000
309.684668 125.620732 -36.000000
311.323132 124.473807 -36.000000
312.961596 123.326883 -36.000000
314.600060 122.179958 -36.000000
316.238524 121.033033 -36.000000
317.876988 119.886109 -36.000000
319.515451 118.739184 -36.000000
321.153915 117.592259 -36.000000
322.792379 116.445335 -36.000000
324.430843 115.298410 -36.000000
326.069307 114.151485 -36.000000
327.707771 113.004561 -36.000000
329.346234 111.857636 -36.000000
330.984698 110.710711 -36.000000
332.623162 109.563787 -36.000000
334.261626 108.416862 -36.000000
335.900090 107.269937 -36.000000
337.538554 106.123012 -36.000000
339.177017 104.976088 -36.000000
340.815481 103.829163 -36.000000
342.453945 102.682238 -36.000000
344.092409 101.535314 -36.000000
345.730873 100.388389 -36.000000
347.369337 99.241464 -36.000000
349.007801 98.094540 -36.000000
352.000000 96.000000 -36.000000
352.000000 94.000000 -36.000000
352.000000 92.000000 -36.000000
352.000000 90.000000 -36.000000
352.000000 88.000000 -36.000000
352.000000 86.000000 -36.000000
352.000000 84.000000 -36.000000
352.000000 82.000000 -36.000000
352.000000 80.000000 -36.000000
352.000000 78.000000 -36.000000
352.000000 76.000000 -36.000000
352.000000 74.000000 -36.000000
352.000000 72.000000 -36.000000
352.000000 70.000000 -36.000000
352.000000 68.000000 -36.000000
352.000000 66.000000 -36.000000
352.000000 64.000000 -36.000000
352.000000 62.000000 -36.000000
352.000000 60.000000 -36.000000
352.000000 58.000000 -36.000000
352.000000 56.000000 -36.000000
352.000000 54.000000 -36.000000
352.000000 52.000000 -36.000000
352.000000 50.000000 -36.000000
352.000000 48.000000 -36.000000
352.000000 46.000000 -36.000000
352.000000 44.000000 -36.000000
352.000000 42.000000 -36.000000
352.000000 40.000000 -36.000000
352.000000 38.000000 -36.000000
352.000000 36.000000 -36.000000
352.000000 34.000000 -36.000000
352.000000 32.000000 -36.000000
352.000000 30.000000 -36.000000
352.000000 28.000000 -36.000000
352.000000 26.000000 -36.000000
352.000000 24.000000 -36.000000
352.000000 22.000000 -36.000000
352.000000 20.000000 -36.000000
352.000000 18.000000 -36.000000
352.000000 16.000000 -36.000000
352.000000 14.000000 -36.000000
352.000000 12.000000 -36.000000
352.000000 10.000000 -36.000000
352.000000 8.000000 -36.000000
352.000000 6.000000 -36.000000
352.000000 4.000000 -36.000000
352.000000 2.000000 -36.000000
352.000000 0.000000 -36.000000
352.000000 -2.000000 -36.000000
352.000000 -4.000000 -36.000000
352.000000 -6.000000 -36.000000
352.000000 -8.000000 -36.000000
352.000000 -10.000000 -36.000000
352.000000 -12.000000 -36.000000
352.000000 -14.000000 -36.000000
352.000000 -16.000000 -36.000000
352.000000 -18.000000 -36.000000
352.000000 -20.000000 -36.000000
352.000000 -22.000000 -36.000000
352.000000 -24.000000 -36.000000
352.000000 -26.000000 -36.000000
352.000000 -28.000000 -36.000000
352.000000 -30.000000 -36.000000
352.000000 -32.000000 -36.000000
352.000000 -34.000000 -36.000000
352.000000 -36.000000 -36.000000
352.000000 -38.000000 -36.000000
352.000000 -40.000000 -36.000000
352.000000 -42.000000 -36.000000
352.000000 -44.000000 -36.000000
352.000000 -46.000000 -36.000000
352.000000 -48.000000 -36.000000
352.000000 -50.000000 -36.000000
352.000000 -52.000000 -36.000000
352.000000 -54.000000 -36.000000
352.000000 -56.000000 -36.000000
352.000000 -58.000000 -36.000000
352.000000 -60.000000 -36.000000
352.000000 -62.000000 -36.000000
352.000000 -64.000000 -36.000000
352.000000 -66.000000 -36.000000
352.000000 -68.000000 -36.000000
352.000000 -70.000000 -36.000000
352.000000 -72.000000 -36.000000
352.000000 -74.000000 -36.000000
352.000000 -76.000000 -36.000000
352.000000 -80.000000 -36.000000
352.000000 -81.711831 -34.965769
352.000000 -83.423662 -33.931537
352.000000 -85.135493 -32.897306
352.000000 -86.847324 -31.863075
352.000000 -88.559155 -30.828844
352.000000 -90.270987 -29.794612
352.000000 -91.982818 -28.760381
352.000000 -93.694649 -27.726150
352.000000 -95.406480 -26.691918
352.000000 -97.118311 -25.657687
352.000000 -98.830142 -24.623456
352.000000 -100.541973 -23.589225
352.000000 -102.253804 -22.554993
352.000000 -103.965635 -21.520762
352.000000 -105.677466 -20.486531
352.000000 -107.389297 -19.452300
352.000000 -109.101128 -18.418068
352.000000 -110.812960 -17.383837
352.000000 -112.524791 -16.349606
352.000000 -114.236622 -15.315374
352.000000 -115.948453 -14.281143
352.000000 -117.660284 -13.246912
352.000000 -119.372115 -12.212681
352.000000 -121.083946 -11.178449
352.000000 -122.795777 -10.144218
352.000000 -124.507608 -9.109987
352.000000 -126.219439 -8.075755
352.000000 -127.931270 -7.041524
352.000000 -129.643101 -6.007293
352.000000 -131.354933 -4.973062
352.000000 -133.066764 -3.938830
352.000000 -134.778595 -2.904599
352.000000 -136.490426 -1.870368
352.000000 -138.202257 -0.836136
352.000000 -139.914088 0.198095
352.000000 -141.625919 1.232326
352.000000 -143.337750 2.266557
352.000000 -145.049581 3.300789
352.000000 -146.761412 4.335020
352.000000 -148.473243 5.369251
352.000000 -150.185074 6.403482
352.000000 -151.896906 7.437714
352.000000 -153.608737 8.471945
352.000000 -155.320568 9.506176
352.000000 -157.032399 10.540408
352.000000 -158.744230 11.574639
352.000000 -160.456061 12.608870
352.000000 -162.167892 13.643101
352.000000 -163.879723 14.677333
352.000000 -165.591554 15.711564
352.000000 -167.303385 16.745795
352.000000 -169.015216 17.780027
352.000000 -170.727047 18.814258
352.000000 -172.438879 19.848489
352.000000 -174.150710 20.882720
352.000000 -175.862541 21.916952
352.000000 -177.574372 22.951183
352.000000 -179.286203 23.985414
352.000000 -180.998034 25.019646
352.000000 -182.709865 26.053877
352.000000 -184.421696 27.088108
352.000000 -186.133527 28.122339
352.000000 -187.845358 29.156571
352.000000 -189.557189 30.190802
352.000000 -191.269020 31.225033
352.000000 -192.980852 32.259264
352.000000 -194.692683 33.293496
352.000000 -196.404514 34.327727
352.000000 -198.116345 35.361958
352.000000 -199.828176 36.396190
352.000000 -201.540007 37.430421
352.000000 -203.251838 38.464652
352.000000 -204.963669 39.498883
352.000000 -206.675500 40.533115
352.000000 -208.387331 41.567346
352.000000 -210.099162 42.601577
352.000000 -211.810993 43.635809
352.000000 -213.522825 44.670040
352.000000 -215.234656 45.704271
352.000000 -216.946487 46.738502
352.000000 -218.658318 47.772734
352.000000 -220.370149 48.806965
352.000000 -222.081980 49.841196
352.000000 -223.793811 50.875428
352.000000 -225.505642 51.909659
352.000000 -227.217473 52.943890
352.000000 -228.929304 53.978121
352.000000 -230.641135 55.012353
352.000000 -232.352966 56.046584
352.000000 -234.064798 57.080815
352.000000 -235.776629 58.115046
352.000000 -237.488460 59.149278
352.000000 -239.200291 60.183509
352.000000 -240.912122 61.217740
352.000000 -242.623953 62.251972
352.000000 -244.335784 63.286203
352.000000 -246.047615 64.320434
352.000000 -247.759446 65.354665
352.000000 -249.471277 66.388897
352.000000 -251.183108 67.423128
352.000000 -252.894939 68.457359
352.000000 -254.606771 69.491591
352.000000 -256.318602 70.525822
352.000000 -258.030433 71.560053
352.000000 -259.742264 72.594284
352.000000 -261.454095 73.628516
352.000000 -263.165926 74.662747
352.000000 -264.877757 75.696978
352.000000 -266.589588 76.731210
352.000000 -268.301419 77.765441
352.000000 -270.013250 78.799672
352.000000 -272.000000 80.000000
351.070576 -273.769480 80.071494
350.141152 -275.538960 80.142988
349.211728 -277.308440 80.214482
348.282304 -279.077920 80.285977
347.352881 -280.847400 80.357471
346.423457 -282.616881 80.428965
345.494033 -284.386361 80.500459
344.564609 -286.155841 80.571953
343.635185 -287.925321 80.643447
342.705761 -289.694801 80.714941
341.776337 -291.464281 80.786436
340.846913 -293.233761 80.857930
339.917489 -295.003241 80.929424
338.988066 -296.772721 81.000918
338.058642 -298.542201 81.072412
337.129218 -300.311682 81.143906
336.199794 -302.081162 81.215400
335.270370 -303.850642 81.286895
334.340946 -305.620122 81.358389
333.411522 -307.389602 81.429883
332.482098 -309.159082 81.501377
331.552674 -310.928562 81.572871
330.623251 -312.698042 81.644365
329.693827 -314.467522 81.715859
328.764403 -316.237002 81.787354
327.834979 -318.006483 81.858848
326.905555 -319.775963 81.930342
325.976131 -321.545443 82.001836
325.046707 -323.314923 82.073330
324.117283 -325.084403 82.144824
323.187859 -326.853883 82.216319
322.258436 -328.623363 82.287813
321.329012 -330.392843 82.359307
320.399588 -332.162323 82.430801
319.470164 -333.931803 82.502295
318.540740 -335.701284 82.573789
317.611316 -337.470764 82.645283
316.681892 -339.240244 82.716778
315.752468 -341.009724 82.788272
314.823044 -342.779204 82.859766
313.893621 -344.548684 82.931260
312.964197 -346.318164 83.002754
312.034773 -348.087644 83.074248
311.105349 -349.857124 83.145742
310.175925 -351.626604 83.217237
309.246501 -353.396085 83.288731
308.317077 -355.165565 83.360225
307.387653 -356.935045 83.431719
306.458229 -358.704525 83.503213
305.528805 -360.474005 83.574707
304.599382 -362.243485 83.646201
303.669958 -364.012965 83.717696
302.740534 -365.782445 83.789190
301.811110 -367.551925 83.860684
300.881686 -369.321405 83.932178
299.952262 -371.090886 84.003672
299.022838 -372.860366 84.075166
298.093414 -374.629846 84.146660
297.163990 -376.399326 84.218155
296.234567 -378.168806 84.289649
295.305143 -379.938286 84.361143
294.375719 -381.707766 84.432637
293.446295 -383.477246 84.504131
292.516871 -385.246726 84.575625
291.587447 -387.016206 84.647119
290.658023 -388.785687 84.718614
289.728599 -390.555167 84.790108
288.799175 -392.324647 84.861602
287.869752 -394.094127 84.933096
286.940328 -395.863607 85.004590
286.010904 -397.633087 85.076084
285.081480 -399.402567 85.147578
284.152056 -401.172047 85.219073
283.222632 -402.941527 85.290567
282.293208 -404.711007 85.362061
281.363784 -406.480487 85.433555
280.434360 -408.249968 85.505049
279.504937 -410.019448 85.576543
278.575513 -411.788928 85.648037
277.646089 -413.558408 85.719532
276.716665 -415.327888 85.791026
275.787241 -417.097368 85.862520
274.857817 -418.866848 85.934014
273.928393 -420.636328 86.005508
272.998969 -422.405808 86.077002
272.069545 -424.175288 86.148497
271.140122 -425.944769 86.219991
270.210698 -427.714249 86.291485
269.281274 -429.483729 86.362979
268.351850 -431.253209 86.434473
267.422426 -433.022689 86.505967
266.493002 -434.792169 86.577461
265.563578 -436.561649 86.648956
264.634154 -438.331129 86.720450
263.704730 -440.100609 86.791944
262.775307 -441.870089 86.863438
261.845883 -443.639570 86.934932
260.916459 -445.409050 87.006426
259.987035 -447.178530 87.077920
259.057611 -448.948010 87.149415
258.128187 -450.717490 87.220909
257.198763 -452.486970 87.292403
256.269339 -454.256450 87.363897
255.339915 -456.025930 87.435391
254.410492 -457.795410 87.506885
253.481068 -459.564890 87.578379
252.551644 -461.334371 87.649874
251.622220 -463.103851 87.721368
250.692796 -464.873331 87.792862
249.763372 -466.642811 87.864356
248.833948 -468.412291 87.935850
247.904524 -470.181771 88.007344
246.975100 -471.951251 88.078838
246.045677 -473.720731 88.150333
245.116253 -475.490211 88.221827
244.186829 -477.259691 88.293321
243.257405 -479.029172 88.364815
242.327981 -480.798652 88.436309
241.398557 -482.568132 88.507803
240.469133 -484.337612 88.579297
239.539709 -486.107092 88.650792
238.610285 -487.876572 88.722286
237.680862 -489.646052 88.793780
236.751438 -491.415532 88.865274
235.822014 -493.185012 88.936768
234.892590 -494.954492 89.008262
233.963166 -496.723973 89.079756
233.033742 -498.493453 89.151251
232.104318 -500.262933 89.222745
231.174894 -502.032413 89.294239
230.245470 -503.801893 89.365733
229.316046 -505.571373 89.437227
228.386623 -507.340853 89.508721
227.457199 -509.110333 89.580215
226.527775 -510.879813 89.651710
225.598351 -512.649293 89.723204
224.668927 -514.418774 89.794698
223.739503 -516.188254 89.866192
222.810079 -517.957734 89.937686
221.880655 -519.727214 90.009180
220.951231 -521.496694 90.080675
220.021808 -523.266174 90.152169
219.092384 -525.035654 90.223663
218.162960 -526.805134 90.295157
217.233536 -528.574614 90.366651
216.304112 -530.344094 90.438145
215.374688 -532.113575 90.509639
214.445264 -533.883055 90.581134
213.515840 -535.652535 90.652628
212.586416 -537.422015 90.724122
211.656993 -539.191495 90.795616
210.727569 -540.960975 90.867110
209.798145 -542.730455 90.938604
208.868721 -544.499935 91.010098
207.939297 -546.269415 91.081593
207.009873 -548.038895 91.153087
206.080449 -549.808375 91.224581
205.151025 -551.577856 91.296075
204.221601 -553.347336 91.367569
203.292178 -555.116816 91.439063
202.362754 -556.886296 91.510557
201.433330 -558.655776 91.582052
200.503906 -560.425256 91.653546
199.574482 -562.194736 91.725040
198.645058 -563.964216 91.796534
197.715634 -565.733696 91.868028
196.786210 -567.503176 91.939522
195.856786 -569.272657 92.011016
194.927363 -571.042137 92.082511
193.997939 -572.811617 92.154005
193.068515 -574.581097 92.225499
192.139091 -576.350577 92.296993
191.209667 -578.120057 92.368487
190.280243 -579.889537 92.439981
189.350819 -581.659017 92.511475
188.421395 -583.428497 92.582970
187.491971 -585.197977 92.654464
186.562548 -586.967458 92.725958
185.633124 -588.736938 92.797452
184.703700 -590.506418 92.868946
183.774276 -592.275898 92.940440
182.844852 -594.045378 93.011934
181.915428 -595.814858 93.083429
180.986004 -597.584338 93.154923
180.056580 -599.353818 93.226417
179.127156 -601.123298 93.297911
178.197733 -602.892778 93.369405
177.268309 -604.662259 93.440899
176.338885 -606.431739 93.512393
175.409461 -608.201219 93.583888
174.480037 -609.970699 93.655382
173.550613 -611.740179 93.726876
172.621189 -613.509659 93.798370
171.691765 -615.279139 93.869864
170.762341 -617.048619 93.941358
169.832918 -618.818099 94.012852
168.903494 -620.587579 94.084347
167.974070 -622.357060 94.155841
167.044646 -624.126540 94.227335
166.115222 -625.896020 94.298829
165.185798 -627.665500 94.370323
164.256374 -629.434980 94.441817
163.326950 -631.204460 94.513312
162.397526 -632.973940 94.584806
161.468103 -634.743420 94.656300
160.538679 -636.512900 94.727794
159.609255 -638.282380 94.799288
158.679831 -640.051861 94.870782
157.750407 -641.821341 94.942276
156.820983 -643.590821 95.013771
155.891559 -645.360301 95.085265
154.962135 -647.129781 95.156759
154.032711 -648.899261 95.228253
153.103287 -650.668741 95.299747
152.173864 -652.438221 95.371241
151.244440 -654.207701 95.442735
150.315016 -655.977181 95.514230
149.385592 -657.746662 95.585724
148.456168 -659.516142 95.657218
147.526744 -661.285622 95.728712
146.597320 -663.055102 95.800206
145.667896 -664.824582 95.871700
144.000000 -668.000000 96.000000
142.585786 -668.000000 97.414214
141.171573 -668.000000 98.828427
139.757359 -668.000000 100.242641
138.343146 -668.000000 101.656854
136.928932 -668.000000 103.071068
135.514719 -668.000000 104.485281
134.100505 -668.000000 105.899495
132.686292 -668.000000 107.313708
131.272078 -668.000000 108.727922
129.857864 -668.000000 110.142136
128.443651 -668.000000 111.556349
127.029437 -668.000000 112.970563
125.615224 -668.000000 114.384776
124.201010 -668.000000 115.798990
122.786797 -668.000000 117.213203
121.372583 -668.000000 118.627417
119.958369 -668.000000 120.041631
118.544156 -668.000000 121.455844
117.129942 -668.000000 122.870058
115.715729 -668.000000 124.284271
114.301515 -668.000000 125.698485
112.887302 -668.000000 127.112698
111.473088 -668.000000 128.526912
110.058875 -668.000000 129.941125
108.644661 -668.000000 131.355339
107.230447 -668.000000 132.769553
105.816234 -668.000000 134.183766
104.402020 -668.000000 135.597980
102.987807 -668.000000 137.012193
101.573593 -668.000000 138.426407
100.159380 -668.000000 139.840620
98.745166 -668.000000 141.254834
97.330952 -668.000000 142.669048
95.916739 -668.000000 144.083261
94.502525 -668.000000 145.497475
93.088312 -668.000000 146.911688
91.674098 -668.000000 148.325902
90.259885 -668.000000 149.740115
88.845671 -668.000000 151.154329
87.431458 -668.000000 152.568542
86.017244 -668.000000 153.982756
84.603030 -668.000000 155.396970
83.188817 -668.000000 156.811183
81.774603 -668.000000 158.225397
80.360390 -668.000000 159.639610
78.946176 -668.000000 161.053824
77.531963 -668.000000 162.468037
76.117749 -668.000000 163.882251
74.703535 -668.000000 165.296465
73.289322 -668.000000 166.710678
71.875108 -668.000000 168.124892
70.460895 -668.000000 169.539105
69.046681 -668.000000 170.953319
67.632468 -668.000000 172.367532
66.218254 -668.000000 173.781746
64.000000 -668.000000 176.000000
62.241416 -668.000000 176.952566
60.482832 -668.000000 177.905133
58.724248 -668.000000 178.857699
56.965664 -668.000000 179.810265
55.207080 -668.000000 180.762831
53.448496 -668.000000 181.715398
51.689912 -668.000000 182.667964
49.931329 -668.000000 183.620530
48.172745 -668.000000 184.573097
46.414161 -668.000000 185.525663
44.655577 -668.000000 186.478229
42.896993 -668.000000 187.430796
41.138409 -668.000000 188.383362
39.379825 -668.000000 189.335928
37.621241 -668.000000 190.288494
35.862657 -668.000000 191.241061
34.104073 -668.000000 192.193627
32.345489 -668.000000 193.146193
30.586905 -668.000000 194.098760
28.828321 -668.000000 195.051326
27.069737 -668.000000 196.003892
25.311153 -668.000000 196.956459
23.552570 -668.000000 197.909025
21.793986 -668.000000 198.861591
20.035402 -668.000000 199.814157
18.276818 -668.000000 200.766724
16.518234 -668.000000 201.719290
14.759650 -668.000000 202.671856
13.001066 -668.000000 203.624423
11.242482 -668.000000 204.576989
9.483898 -668.000000 205.529555
7.725314 -668.000000 206.482122
5.966730 -668.000000 207.434688
4.208146 -668.000000 208.387254
2.449562 -668.000000 209.339820
0.690978 -668.000000 210.292387
-1.067606 -668.000000 211.244953
-2.826189 -668.000000 212.197519
-4.584773 -668.000000 213.150086
-6.343357 -668.000000 214.102652
-8.101941 -668.000000 215.055218
-9.860525 -668.000000 216.007784
-11.619109 -668.000000 216.960351
-13.377693 -668.000000 217.912917
-15.136277 -668.000000 218.865483
-16.894861 -668.000000 219.818050
-18.653445 -668.000000 220.770616
-20.412029 -668.000000 221.723182
-22.170613 -668.000000 222.675749
-23.929197 -668.000000 223.628315
-25.687781 -668.000000 224.580881
-27.446365 -668.000000 225.533447
-29.204948 -668.000000 226.486014
-30.963532 -668.000000 227.438580
-32.722116 -668.000000 228.391146
-34.480700 -668.000000 229.343713
-36.239284 -668.000000 230.296279
-37.997868 -668.000000 231.248845
-39.756452 -668.000000 232.201412
-41.515036 -668.000000 233.153978
-43.273620 -668.000000 234.106544
-45.032204 -668.000000 235.059110
-46.790788 -668.000000 236.011677
-48.549372 -668.000000 236.964243
-50.307956 -668.000000 237.916809
-52.066540 -668.000000 238.869376
-53.825124 -668.000000 239.821942
-55.583707 -668.000000 240.774508
-57.342291 -668.000000 241.727074
-59.100875 -668.000000 242.679641
-60.859459 -668.000000 243.632207
-62.618043 -668.000000 244.584773
-64.376627 -668.000000 245.537340
-66.135211 -668.000000 246.489906
-67.893795 -668.000000 247.442472
-69.652379 -668.000000 248.395039
-71.410963 -668.000000 249.347605
-73.169547 -668.000000 250.300171
-74.928131 -668.000000 251.252737
-76.686715 -668.000000 252.205304
-78.445299 -668.000000 253.157870
-80.203883 -668.000000 254.110436
-81.962466 -668.000000 255.063003
-83.721050 -668.000000 256.015569
-85.479634 -668.000000 256.968135
-87.238218 -668.000000 257.920702
-88.996802 -668.000000 258.873268
-90.755386 -668.000000 259.825834
-92.513970 -668.000000 260.778400
-94.272554 -668.000000 261.730967
-96.031138 -668.000000 262.683533
-97.789722 -668.000000 263.636099
-99.548306 -668.000000 264.588666
-101.306890 -668.000000 265.541232
-103.065474 -668.000000 266.493798
-104.824058 -668.000000 267.446365
-106.582642 -668.000000 268.398931
-108.341225 -668.000000 269.351497
-110.099809 -668.000000 270.304063
-111.858393 -668.000000 271.256630
-113.616977 -668.000000 272.209196
-115.375561 -668.000000 273.161762
-117.134145 -668.000000 274.114329
-118.892729 -668.000000 275.066895
-120.651313 -668.000000 276.019461
-122.409897 -668.000000 276.972027
-124.168481 -668.000000 277.924594
-125.927065 -668.000000 278.877160
-128.000000 -668.000000 280.000000
-129.741126 -668.000000 279.015885
-131.482251 -668.000000 278.031771
-133.223377 -668.000000 277.047656
-134.964503 -668.000000 276.063542
-136.705628 -668.000000 275.079427
-138.446754 -668.000000 274.095313
-140.187880 -668.000000 273.111198
-141.929005 -668.000000 272.127084
-143.670131 -668.000000 271.142969
-145.411257 -668.000000 270.158855
-147.152382 -668.000000 269.174740
-148.893508 -668.000000 268.190626
-150.634634 -668.000000 267.206511
-152.375759 -668.000000 266.222397
-154.116885 -668.000000 265.238282
-155.858011 -668.000000 264.254168
-157.599137 -668.000000 263.270053
-159.340262 -668.000000 262.285939
-161.081388 -668.000000 261.301824
-162.822514 -668.000000 260.317710
-164.563639 -668.000000 259.333595
-166.304765 -668.000000 258.349481
-168.045891 -668.000000 257.365366
-169.787016 -668.000000 256.381252
-171.528142 -668.000000 255.397137
-173.269268 -668.000000 254.413023
-175.010393 -668.000000 253.428908
-176.751519 -668.000000 252.444794
-178.492645 -668.000000 251.460679
-180.233770 -668.000000 250.476565
-181.974896 -668.000000 249.492450
-183.716022 -668.000000 248.508336
-185.457147 -668.000000 247.524221
-187.198273 -668.000000 246.540107
-188.939399 -668.000000 245.555992
-190.680524 -668.000000 244.571878
-192.421650 -668.000000 243.587763
-194.162776 -668.000000 242.603648
-195.903901 -668.000000 241.619534
-197.645027 -668.000000 240.635419
-199.386153 -668.000000 239.651305
-201.127278 -668.000000 238.667190
-202.868404 -668.000000 237.683076
-204.609530 -668.000000 236.698961
-206.350655 -668.000000 235.714847
-208.091781 -668.000000 234.730732
-209.832907 -668.000000 233.746618
-211.574033 -668.000000 232.762503
-213.315158 -668.000000 231.778389
-215.056284 -668.000000 230.794274
-216.797410 -668.000000 229.810160
-218.538535 -668.000000 228.826045
-220.279661 -668.000000 227.841931
-222.020787 -668.000000 226.857816
-223.761912 -668.000000 225.873702
-225.503038 -668.000000 224.889587
-227.244164 -668.000000 223.905473
-228.985289 -668.000000 222.921358
-230.726415 -668.000000 221.937244
-232.467541 -668.000000 220.953129
-234.208666 -668.000000 219.969015
-235.949792 -668.000000 218.984900
-237.690918 -668.000000 218.000786
-239.432043 -668.000000 217.016671
-241.173169 -668.000000 216.032557
-242.914295 -668.000000 215.048442
-244.655420 -668.000000 214.064328
-246.396546 -668.000000 213.080213
-248.137672 -668.000000 212.096099
-249.878797 -668.000000 211.111984
-251.619923 -668.000000 210.127870
-253.361049 -668.000000 209.143755
-255.102174 -668.000000 208.159641
-256.843300 -668.000000 207.175526
-258.584426 -668.000000 206.191411
-260.325551 -668.000000 205.207297
-262.066677 -668.000000 204.223182
-263.807803 -668.000000 203.239068
-265.548929 -668.000000 202.254953
-267.290054 -668.000000 201.270839
-269.031180 -668.000000 200.286724
-270.772306 -668.000000 199.302610
-272.513431 -668.000000 198.318495
-274.254557 -668.000000 197.334381
-275.995683 -668.000000 196.350266
-277.736808 -668.000000 195.366152
-279.477934 -668.000000 194.382037
-281.219060 -668.000000 193.397923
-282.960185 -668.000000 192.413808
-284.701311 -668.000000 191.429694
-286.442437 -668.000000 190.445579
-288.183562 -668.000000 189.461465
-289.924688 -668.000000 188.477350
-291.665814 -668.000000 187.493236
-293.406939 -668.000000 186.509121
-295.148065 -668.000000 185.525007
-296.889191 -668.000000 184.540892
-298.630316 -668.000000 183.556778
-300.371442 -668.000000 182.572663
-302.112568 -668.000000 181.588549
-303.853693 -668.000000 180.604434
-305.594819 -668.000000 179.620320
-307.335945 -668.000000 178.636205
-309.077070 -668.000000 177.652091
-312.000000 -668.000000 176.000000
-313.979899 -668.000000 175.717157
-315.959798 -668.000000 175.434315
-317.939697 -668.000000 175.151472
-319.919596 -668.000000 174.868629
-321.899495 -668.000000 174.585786
-323.879394 -668.000000 174.302944
-325.859293 -668.000000 174.020101
-327.839192 -668.000000 173.737258
-329.819091 -668.000000 173.454416
-331.798990 -668.000000 173.171573
-333.778889 -668.000000 172.888730
-335.758788 -668.000000 172.605887
-337.738687 -668.000000 172.323045
-339.718586 -668.000000 172.040202
-341.698485 -668.000000 171.757359
-343.678384 -668.000000 171.474517
-345.658283 -668.000000 171.191674
-347.638182 -668.000000 170.908831
-349.618081 -668.000000 170.625988
-351.597980 -668.000000 170.343146
-353.577879 -668.000000 170.060303
-355.557778 -668.000000 169.777460
-357.537677 -668.000000 169.494618
-359.517576 -668.000000 169.211775
-361.497475 -668.000000 168.928932
-363.477374 -668.000000 168.646089
-365.457273 -668.000000 168.363247
-368.000000 -668.000000 168.000000
-369.897367 -667.367544 168.000000
-371.794733 -666.735089 168.000000
-373.692100 -666.102633 168.000000
-375.589466 -665.470178 168.000000
-377.486833 -664.837722 168.000000
-379.384200 -664.205267 168.000000
-381.281566 -663.572811 168.000000
-383.178933 -662.940356 168.000000
-385.076299 -662.307900 168.000000
-386.973666 -661.675445 168.000000
-388.871033 -661.042989 168.000000
-390.768399 -660.410534 168.000000
-392.665766 -659.778078 168.000000
-394.563132 -659.145623 168.000000
-396.460499 -658.513167 168.000000
-398.357866 -657.880711 168.000000
-400.255232 -657.248256 168.000000
-402.152599 -656.615800 168.000000
-404.049965 -655.983345 168.000000
-405.947332 -655.350889 168.000000
-407.844699 -654.718434 168.000000
-409.742065 -654.085978 168.000000
-411.639432 -653.453523 168.000000
-413.536798 -652.821067 168.000000
